-0.04225 0.05171537 0.01383613
-0.04175 0.05175078 0.01421631
-0.04125 0.05176258 0.01434302
-0.04075 0.0518098 0.01484992
-0.04025 0.05185701 0.01535682
-0.03975 0.05188061 0.01561025
-0.03925 0.05190422 0.0158637
-0.03875 0.05190422 0.0158637
-0.03825 0.05193963 0.01624388
-0.03775 0.05195143 0.0163706
-0.03725 0.05195143 0.0163706
-0.03675 0.05198684 0.01675077
-0.03625 0.05199865 0.01687749
-0.03575 0.05201045 0.01700421
-0.03525 0.05202225 0.01713093
-0.03475 0.05201045 0.01700421
-0.03425 0.05201045 0.01700421
-0.03375 0.05201045 0.01700421
-0.03325 0.05202225 0.01713093
-0.03275 0.05201045 0.01700421
-0.03225 0.05198684 0.01675077
-0.03175 0.05198684 0.01675077
-0.03125 0.05197504 0.01662403
-0.03075 0.05195143 0.0163706
-0.03025 0.05195143 0.0163706
-0.02975 0.05185701 0.01535682
-0.02925 0.05185701 0.01535682
-0.02875 0.05178619 0.01459648
-0.02825 0.05175078 0.01421631
-0.02775 0.05170357 0.01370943
-0.02725 0.05151472 0.01168185
-0.02675 0.05152652 0.01180858
0.01875 0.05243536 0.02156622
0.01925 0.05247077 0.02194641
0.01975 0.05254158 0.02270674
0.02025 0.05258879 0.02321363
0.02075 0.0526124 0.02346707
0.02125 0.05263601 0.02372053
0.02175 0.05267142 0.02410069
0.02225 0.05268322 0.02422742
0.02275 0.05267142 0.02410069
0.02325 0.05270683 0.02448086
0.02375 0.05271863 0.02460759
0.02425 0.05271863 0.02460759
0.02475 0.05270683 0.02448086
0.02525 0.05270683 0.02448086
0.02575 0.05270683 0.02448086
0.02625 0.05268322 0.02422742
0.02675 0.05267142 0.02410069
0.02725 0.05267142 0.02410069
0.02775 0.05263601 0.02372053
0.02825 0.0526124 0.02346707
0.02875 0.05258879 0.02321363
0.02925 0.05256519 0.02296018
0.02975 0.05252978 0.02258001
0.03025 0.05250617 0.02232657
0.03075 0.05247077 0.02194641
0.03125 0.05243536 0.02156622
0.03175 0.05236454 0.02080589
0.03225 0.05232913 0.02042573
0.03275 0.05228192 0.01991884
0.03325 0.05223471 0.01941194
0.03375 0.05217569 0.01877834
0.03425 0.05203405 0.01725765
0.03475 0.05203405 0.01725765
0.03525 0.05189242 0.01573697
-0.1145 0.0639898 0.1525494
-0.045 0.05214429 0.0107926
-0.044 0.0522619 0.01205995
-0.0435 0.05230894 0.01256689
-0.043 0.05235599 0.01307382
-0.0425 0.05240304 0.01358077
-0.042 0.05243832 0.01396097
-0.0415 0.05245008 0.01408771
-0.041 0.05248537 0.01446791
-0.0405 0.05254418 0.0151016
-0.04 0.05257946 0.01548179
-0.0395 0.05261474 0.015862
-0.039 0.05260298 0.01573525
-0.0385 0.05262651 0.01598873
-0.038 0.05263827 0.01611546
-0.0375 0.05265003 0.0162422
-0.037 0.05267355 0.01649568
-0.0365 0.05268531 0.0166224
-0.036 0.05270883 0.01687589
-0.0355 0.05270883 0.01687589
-0.035 0.0527206 0.0170026
-0.0345 0.05270883 0.01687589
-0.034 0.05270883 0.01687589
-0.0335 0.0527206 0.0170026
-0.033 0.0527206 0.0170026
-0.0325 0.05269707 0.01674914
-0.032 0.05268531 0.0166224
-0.0315 0.05268531 0.0166224
-0.031 0.05267355 0.01649568
-0.0305 0.05263827 0.01611546
-0.03 0.05260298 0.01573525
-0.0295 0.05257946 0.01548179
-0.029 0.05252065 0.01484811
-0.0285 0.0524736 0.01434117
-0.028 0.05242656 0.01383423
-0.0275 0.05236775 0.01320057
-0.027 0.05223837 0.01180649
-0.0265 0.05221485 0.011553
0.0185 0.0530852 0.0209314
0.0195 0.05321458 0.02232549
0.02 0.05328514 0.02308588
0.0205 0.05333219 0.02359282
0.021 0.05334396 0.02371956
0.0215 0.05336748 0.02397303
0.022 0.05341452 0.02447997
0.0225 0.053391 0.02422651
0.023 0.05341452 0.02447997
0.0235 0.05344981 0.02486017
0.024 0.05344981 0.02486017
0.0245 0.05343805 0.02473345
0.025 0.05342628 0.02460671
0.0255 0.05342628 0.02460671
0.026 0.05343805 0.02473345
0.0265 0.05341452 0.02447997
0.027 0.05342628 0.02460671
0.0275 0.05344981 0.02486017
0.028 0.05336748 0.02397303
0.0285 0.05336748 0.02397303
0.029 0.05332043 0.02346609
0.0295 0.05330867 0.02333936
0.03 0.05324986 0.02270568
0.0305 0.05320282 0.02219874
0.031 0.05317929 0.02194528
0.0315 0.05315577 0.0216918
0.032 0.05306168 0.02067792
0.0325 0.05302639 0.02029771
0.033 0.05296759 0.01966406
0.0335 0.05292054 0.01915711
0.034 0.05286174 0.01852343
0.0345 0.05274412 0.01725608
0.035 0.05268531 0.0166224
0.0355 0.05260298 0.01573525
-0.04525 0.05279788 0.01015666
-0.04475 0.05285648 0.01079041
-0.04425 0.05291508 0.01142415
-0.04375 0.05299712 0.01231138
-0.04325 0.053044 0.01281836
-0.04275 0.05307915 0.01319861
-0.04225 0.05313775 0.01383233
-0.04175 0.05316119 0.01408583
-0.04125 0.05318463 0.01433931
-0.04075 0.05323151 0.01484631
-0.04025 0.05326667 0.01522655
-0.03975 0.05330183 0.01560678
-0.03925 0.05331355 0.01573353
-0.03875 0.05332527 0.01586028
-0.03825 0.05334871 0.01611377
-0.03775 0.05336043 0.01624053
-0.03725 0.05337215 0.01636728
-0.03675 0.05338387 0.01649404
-0.03625 0.05340731 0.01674752
-0.03575 0.05340731 0.01674752
-0.03525 0.05340731 0.01674752
-0.03475 0.05341903 0.01687427
-0.03425 0.05340731 0.01674752
-0.03375 0.05341903 0.01687427
-0.03325 0.05341903 0.01687427
-0.03275 0.05341903 0.01687427
-0.03225 0.05339559 0.01662076
-0.03175 0.05338387 0.01649404
-0.03125 0.05338387 0.01649404
-0.03075 0.05337215 0.01636728
-0.03025 0.05334871 0.01611377
-0.02975 0.05331355 0.01573353
-0.02925 0.05331355 0.01573353
-0.02875 0.05320808 0.01459283
-0.02825 0.05317292 0.01421258
-0.02775 0.05317292 0.01421258
-0.02725 0.05309087 0.01332534
-0.02675 0.05293852 0.01167764
-0.02625 0.05293852 0.01167764
-0.02575 0.05291508 0.01142415
0.01825 0.05384095 0.02143716
0.01875 0.05389955 0.02207088
0.01925 0.05393471 0.02245114
0.01975 0.05400503 0.02321161
0.02025 0.05405191 0.0237186
0.02075 0.05407535 0.02397209
0.02125 0.05409878 0.02422559
0.02175 0.05413394 0.02460583
0.02225 0.05415738 0.02485932
0.02275 0.0541691 0.02498607
0.02325 0.05419254 0.02523956
0.02375 0.05421598 0.02549306
0.02425 0.05421598 0.02549306
0.02475 0.05420426 0.02536631
0.02525 0.05420426 0.02536631
0.02575 0.05420426 0.02536631
0.02625 0.0542277 0.02561981
0.02675 0.05419254 0.02523956
0.02725 0.05420426 0.02536631
0.02775 0.05421598 0.02549306
0.02825 0.05419254 0.02523956
0.02875 0.05415738 0.02485932
0.02925 0.05414566 0.02473258
0.02975 0.05412222 0.02447908
0.03025 0.05408707 0.02409884
0.03075 0.05405191 0.0237186
0.03125 0.05389955 0.02207088
0.03175 0.05392298 0.02232439
0.03225 0.05392298 0.02232439
0.03275 0.05386439 0.02169064
0.03325 0.05384095 0.02143716
0.03375 0.05365343 0.0194092
0.03425 0.05367687 0.01966271
0.03475 0.05367687 0.01966271
0.03525 0.05360655 0.0189022
0.03575 0.05346591 0.01738126
0.03625 0.05345419 0.0172545
-0.045 0.05353362 0.01040795
-0.044 0.05367377 0.01192906
-0.0435 0.05372048 0.01243608
-0.043 0.05375551 0.01281636
-0.0425 0.0538139 0.01345015
-0.042 0.05384894 0.01383043
-0.0415 0.0538723 0.01408395
-0.041 0.05391901 0.01459099
-0.0405 0.05396573 0.01509804
-0.04 0.05398908 0.01535154
-0.0395 0.05401244 0.01560505
-0.039 0.05403579 0.01585858
-0.0385 0.05404747 0.01598534
-0.038 0.05407083 0.01623885
-0.0375 0.05408251 0.01636562
-0.037 0.05409419 0.01649239
-0.0365 0.05410586 0.01661912
-0.036 0.05411754 0.0167459
-0.0355 0.05411754 0.0167459
-0.035 0.05412922 0.01687266
-0.0345 0.05415258 0.01712617
-0.034 0.05415258 0.01712617
-0.0335 0.05415258 0.01712617
-0.033 0.05416426 0.01725293
-0.0325 0.0541409 0.0169994
-0.032 0.05410586 0.01661912
-0.0315 0.05411754 0.0167459
-0.031 0.05411754 0.0167459
-0.0305 0.05409419 0.01649239
-0.03 0.05405915 0.01611209
-0.0295 0.05404747 0.01598534
-0.029 0.05402412 0.01573181
-0.0285 0.05389565 0.01433747
-0.028 0.05389565 0.01433747
-0.0275 0.05389565 0.01433747
-0.027 0.0538139 0.01345015
-0.0265 0.05365041 0.01167553
-0.026 0.05363873 0.01154876
-0.0255 0.05363873 0.01154876
0.018 0.05454964 0.02143598
0.0185 0.05460803 0.02206977
0.019 0.05465474 0.0225768
0.0195 0.05470146 0.02308384
0.02 0.05474817 0.02359088
0.0205 0.05478321 0.02397115
0.021 0.05480656 0.02422468
0.0215 0.05482992 0.02447819
0.022 0.05487663 0.02498523
0.0225 0.05486495 0.02485847
0.023 0.05489999 0.02523874
0.0235 0.05493503 0.02561903
0.024 0.05493503 0.02561903
0.0245 0.05495838 0.02587254
0.025 0.0549467 0.02574578
0.0255 0.05497006 0.02599931
0.026 0.05498174 0.02612605
0.0265 0.05498174 0.02612605
0.027 0.05493503 0.02561903
0.0275 0.05492335 0.02549227
0.028 0.05492335 0.02549227
0.0285 0.05491167 0.0253655
0.029 0.05491167 0.0253655
0.0295 0.05485328 0.02473172
0.03 0.05482992 0.02447819
0.0305 0.05480656 0.02422468
0.031 0.05480656 0.02422468
0.0315 0.0546781 0.02283034
0.032 0.0546781 0.02283034
0.0325 0.05465474 0.0225768
0.033 0.05459635 0.02194302
0.0335 0.05456132 0.02156273
0.034 0.05439782 0.0197881
0.0345 0.0544095 0.01991487
0.035 0.05442118 0.02004163
0.0355 0.05436279 0.01940783
0.036 0.05417594 0.01737969
0.0365 0.05417594 0.01737969
-0.04375 0.05439722 0.01205374
-0.04325 0.0544554 0.01268759
-0.04275 0.05451358 0.01332144
-0.04225 0.05454849 0.01370177
-0.04175 0.0545834 0.01408207
-0.04125 0.05460668 0.01433561
-0.04075 0.05466486 0.01496948
-0.04025 0.05468813 0.01522301
-0.03975 0.05472305 0.01560332
-0.03925 0.05475796 0.01598364
-0.03875 0.05476959 0.01611041
-0.03825 0.0548045 0.01649074
-0.03775 0.05481614 0.01661749
-0.03725 0.05483941 0.01687104
-0.03675 0.05485105 0.01699781
-0.03625 0.05487432 0.01725135
-0.03575 0.05487432 0.01725135
-0.03525 0.05487432 0.01725135
-0.03475 0.05487432 0.01725135
-0.03425 0.05488596 0.01737813
-0.03375 0.05488596 0.01737813
-0.03325 0.0548976 0.01750489
-0.03275 0.05488596 0.01737813
-0.03225 0.05485105 0.01699781
-0.03175 0.05481614 0.01661749
-0.03125 0.05482778 0.01674427
-0.03075 0.05481614 0.01661749
-0.03025 0.05479287 0.01636396
-0.02975 0.05478123 0.01623718
-0.02925 0.05475796 0.01598364
-0.02875 0.05473468 0.0157301
-0.02825 0.0545834 0.01408207
-0.02775 0.05460668 0.01433561
-0.02725 0.05454849 0.01370177
-0.02675 0.05451358 0.01332144
-0.02625 0.05431576 0.01116633
-0.02575 0.05433903 0.01141989
-0.02525 0.05409466 0.008757681
0.01775 0.05521179 0.02092772
0.01825 0.05529325 0.02181511
0.01875 0.05535143 0.02244897
0.01925 0.05539798 0.02295604
0.01975 0.05542125 0.02320959
0.02025 0.0554678 0.02371668
0.02075 0.05549107 0.02397021
0.02125 0.05552598 0.02435052
0.02175 0.05554926 0.02460408
0.02225 0.05556089 0.02473085
0.02275 0.05558417 0.02498439
0.02325 0.05560744 0.02523793
0.02375 0.05563071 0.02549148
0.02425 0.05565399 0.02574501
0.02475 0.05565399 0.02574501
0.02525 0.05566562 0.02587178
0.02575 0.05567726 0.02599856
0.02625 0.0556889 0.02612532
0.02675 0.05567726 0.02599856
0.02725 0.05565399 0.02574501
0.02775 0.05563071 0.02549148
0.02825 0.05561908 0.0253647
0.02875 0.05563071 0.02549148
0.02925 0.05560744 0.02523793
0.02975 0.05556089 0.02473085
0.03025 0.05552598 0.02435052
0.03075 0.05551435 0.02422377
0.03125 0.05542125 0.02320959
0.03175 0.05542125 0.02320959
0.03225 0.05539798 0.02295604
0.03275 0.05535143 0.02244897
0.03325 0.05529325 0.02181511
0.03375 0.05525834 0.02143481
0.03425 0.05511869 0.01991355
0.03475 0.05513033 0.02004032
0.03525 0.05511869 0.01991355
0.03575 0.05506051 0.01927968
0.03625 0.05487432 0.01725135
0.03675 0.05474632 0.01585687
-0.0435 0.05516696 0.01268558
-0.043 0.05523653 0.01344628
-0.0425 0.05527132 0.01382662
-0.0415 0.05538727 0.01509447
-0.041 0.05542206 0.01547482
-0.0405 0.05544525 0.01572838
-0.04 0.05545684 0.01585516
-0.0395 0.05550322 0.01636229
-0.039 0.05553801 0.01674265
-0.0385 0.05553801 0.01674265
-0.038 0.05557279 0.01712299
-0.0375 0.05557279 0.01712299
-0.037 0.05559599 0.01737656
-0.0365 0.05560758 0.01750334
-0.036 0.05561917 0.01763012
-0.0355 0.05560758 0.01750334
-0.035 0.05559599 0.01737656
-0.0345 0.05560758 0.01750334
-0.034 0.05561917 0.01763012
-0.0335 0.05561917 0.01763012
-0.033 0.05561917 0.01763012
-0.0325 0.05559599 0.01737656
-0.032 0.05553801 0.01674265
-0.0315 0.05552641 0.01661585
-0.031 0.05552641 0.01661585
-0.0305 0.05550322 0.01636229
-0.03 0.05549163 0.01623551
-0.0295 0.05548003 0.01610872
-0.029 0.05546844 0.01598195
-0.0285 0.05535248 0.0147141
-0.028 0.05530611 0.01420698
-0.0275 0.05529451 0.0140802
-0.027 0.05525972 0.01369986
-0.0265 0.05503942 0.01129097
-0.026 0.05503942 0.01129097
-0.0255 0.05501622 0.01103739
-0.025 0.05476113 0.00824818
0.018 0.05596703 0.02143363
0.0185 0.05602501 0.02206752
0.019 0.05607139 0.02257466
0.0195 0.05610617 0.02295501
0.02 0.05614096 0.02333537
0.0205 0.05616415 0.02358893
0.021 0.05619893 0.02396928
0.0215 0.05623372 0.02434962
0.022 0.05624532 0.02447641
0.0225 0.05625691 0.0246032
0.023 0.0562917 0.02498355
0.0235 0.05631489 0.02523711
0.024 0.05634967 0.02561747
0.0245 0.05633808 0.02549069
0.025 0.05636127 0.02574424
0.0255 0.05637286 0.02587103
0.026 0.05637286 0.02587103
0.0265 0.05638446 0.02599782
0.027 0.05638446 0.02599782
0.0275 0.05636127 0.02574424
0.028 0.05633808 0.02549069
0.0285 0.05632648 0.02536389
0.029 0.05631489 0.02523711
0.0295 0.0562917 0.02498355
0.03 0.05626851 0.02472999
0.0305 0.05624532 0.02447641
0.031 0.05618734 0.02384249
0.0315 0.05615255 0.02346215
0.032 0.05614096 0.02333537
0.0325 0.05609458 0.02282824
0.033 0.0560366 0.02219431
0.0335 0.05600182 0.02181397
0.034 0.05596703 0.02143363
0.0345 0.05581629 0.01978543
0.035 0.05582789 0.01991223
0.0355 0.05581629 0.01978543
0.036 0.05573513 0.01889795
0.0365 0.05558439 0.01724978
0.037 0.05544525 0.01572838
-0.04425 0.05585542 0.01242997
-0.04375 0.05589008 0.01281037
-0.04325 0.0559594 0.01357114
-0.04275 0.05599406 0.01395153
-0.04225 0.05607494 0.01483909
-0.04175 0.05612115 0.01534627
-0.04125 0.05615581 0.01572666
-0.04075 0.05619047 0.01610703
-0.04025 0.05621358 0.01636064
-0.03975 0.05622513 0.01648744
-0.03925 0.05625979 0.01686782
-0.03875 0.05627134 0.0169946
-0.03825 0.0562829 0.0171214
-0.03775 0.05629446 0.0172482
-0.03725 0.05629446 0.0172482
-0.03675 0.05631756 0.01750178
-0.03625 0.05632912 0.01762858
-0.03575 0.05632912 0.01762858
-0.03525 0.05631756 0.01750178
-0.03475 0.05631756 0.01750178
-0.03425 0.05631756 0.01750178
-0.03375 0.05632912 0.01762858
-0.03325 0.05634067 0.01775538
-0.03275 0.05631756 0.01750178
-0.03225 0.0562829 0.0171214
-0.03175 0.05623668 0.01661422
-0.03125 0.05623668 0.01661422
-0.03075 0.05622513 0.01648744
-0.03025 0.05620202 0.01623384
-0.02975 0.05617892 0.01598025
-0.02925 0.05617892 0.01598025
-0.02875 0.05609804 0.01509269
-0.02825 0.05601717 0.01420512
-0.02775 0.05602872 0.01433191
-0.02725 0.0559825 0.01382472
-0.02675 0.05586697 0.01255678
-0.02625 0.05579765 0.01179601
-0.02575 0.05577454 0.0115424
-0.02475 0.05549726 0.008499332
0.01775 0.05662951 0.02092526
0.01825 0.05669883 0.02168603
0.01875 0.0567566 0.02232001
0.01925 0.05679126 0.02270039
0.01975 0.05681437 0.02295397
0.02025 0.05683748 0.02320758
0.02075 0.05687214 0.02358796
0.02125 0.05691835 0.02409514
0.02175 0.05694146 0.02434872
0.02225 0.05695301 0.02447552
0.02275 0.05697612 0.02472913
0.02325 0.05699923 0.02498271
0.02375 0.05702233 0.02523629
0.02425 0.05702233 0.02523629
0.02475 0.05703389 0.02536309
0.02525 0.05705699 0.02561669
0.02575 0.05706855 0.02574347
0.02625 0.0570801 0.02587027
0.02675 0.05706855 0.02574347
0.02725 0.05706855 0.02574347
0.02775 0.05705699 0.02561669
0.02825 0.05703389 0.02536309
0.02875 0.05703389 0.02536309
0.02925 0.05702233 0.02523629
0.02975 0.05699923 0.02498271
0.03025 0.05698767 0.02485591
0.03075 0.05697612 0.02472913
0.03125 0.05689524 0.02384154
0.03175 0.05686058 0.02346116
0.03225 0.05681437 0.02295397
0.03275 0.0567797 0.0225736
0.03325 0.05673349 0.02206641
0.03375 0.05672194 0.02193963
0.03425 0.05667572 0.02143245
0.03475 0.05653708 0.0199109
0.03525 0.05656019 0.0201645
0.03575 0.05650242 0.01953051
0.03625 0.05630601 0.017375
0.03675 0.05632912 0.01762858
0.03725 0.05630601 0.017375
-0.045 0.05655555 0.01230115
-0.0435 0.05670521 0.01394963
-0.043 0.05675125 0.01445686
-0.0425 0.05678579 0.01483729
-0.042 0.05683184 0.01534452
-0.0415 0.05686638 0.01572493
-0.041 0.0568894 0.01597855
-0.0405 0.05692394 0.01635898
-0.04 0.05692394 0.01635898
-0.0395 0.05695847 0.0167394
-0.039 0.0569815 0.016993
-0.0385 0.0569815 0.016993
-0.038 0.05699301 0.01711982
-0.0375 0.05700452 0.01724663
-0.037 0.05700452 0.01724663
-0.0365 0.05701603 0.01737344
-0.036 0.05701603 0.01737344
-0.0355 0.05700452 0.01724663
-0.035 0.05701603 0.01737344
-0.0345 0.05702754 0.01750023
-0.034 0.05702754 0.01750023
-0.0335 0.05702754 0.01750023
-0.033 0.05700452 0.01724663
-0.0325 0.0569815 0.016993
-0.032 0.05696999 0.01686621
-0.0315 0.05696999 0.01686621
-0.031 0.05696999 0.01686621
-0.0305 0.05694696 0.01661258
-0.03 0.05691243 0.01623216
-0.0295 0.05686638 0.01572493
-0.029 0.05683184 0.01534452
-0.0285 0.05677428 0.01471047
-0.028 0.05670521 0.01394963
-0.0275 0.05670521 0.01394963
-0.027 0.05665916 0.0134424
-0.0265 0.05654404 0.01217434
-0.026 0.05654404 0.01217434
-0.0255 0.05645194 0.01115987
-0.025 0.05623321 0.008750528
-0.0245 0.05626775 0.00913097
0.0175 0.05728081 0.02028999
0.018 0.05737291 0.02130445
0.0185 0.05741895 0.02181169
0.019 0.05747652 0.02244573
0.0195 0.05751105 0.02282615
0.02 0.05753408 0.02307976
0.0205 0.0575571 0.02333338
0.021 0.05760315 0.02384059
0.0215 0.05761466 0.0239674
0.022 0.05762617 0.02409422
0.0225 0.05767222 0.02460145
0.023 0.05769524 0.02485505
0.0235 0.05770675 0.02498186
0.024 0.05771827 0.02510867
0.0245 0.05771827 0.02510867
0.025 0.05772978 0.02523547
0.0255 0.05774129 0.02536228
0.026 0.0577528 0.0254891
0.0265 0.05776432 0.02561591
0.027 0.0577528 0.0254891
0.0275 0.05776432 0.02561591
0.028 0.05774129 0.02536228
0.0285 0.05772978 0.02523547
0.029 0.05772978 0.02523547
0.0295 0.05771827 0.02510867
0.03 0.05770675 0.02498186
0.0305 0.05769524 0.02485505
0.031 0.05766071 0.02447464
0.0315 0.05761466 0.0239674
0.032 0.05756861 0.02346017
0.0325 0.05749954 0.02269933
0.033 0.05747652 0.02244573
0.0335 0.05745349 0.02219211
0.034 0.05740744 0.02168488
0.0345 0.05725779 0.02003639
0.035 0.0572693 0.0201632
0.0355 0.0572693 0.0201632
0.036 0.05720023 0.01940235
0.0365 0.05702754 0.01750023
0.037 0.05705057 0.01775385
0.0375 0.05692394 0.01635898
-0.04525 0.05725577 0.01217228
-0.04475 0.0573246 0.01293319
-0.04425 0.05737048 0.01344047
-0.04375 0.05742783 0.01407457
-0.04325 0.05747371 0.01458185
-0.04275 0.05750812 0.01496231
-0.04225 0.05753106 0.01521594
-0.04175 0.05755401 0.01546958
-0.04125 0.05758842 0.01585004
-0.04075 0.05762283 0.01623049
-0.04025 0.0576343 0.01635732
-0.03975 0.05764577 0.01648414
-0.03925 0.05768018 0.0168646
-0.03875 0.05769165 0.01699141
-0.03825 0.05770312 0.01711822
-0.03775 0.05770312 0.01711822
-0.03725 0.05771459 0.01724505
-0.03675 0.05771459 0.01724505
-0.03625 0.05770312 0.01711822
-0.03575 0.05771459 0.01724505
-0.03525 0.05770312 0.01711822
-0.03475 0.05772606 0.01737187
-0.03425 0.05773753 0.01749868
-0.03375 0.05772606 0.01737187
-0.03325 0.05771459 0.01724505
-0.03275 0.05771459 0.01724505
-0.03225 0.05769165 0.01699141
-0.03175 0.05770312 0.01711822
-0.03125 0.05770312 0.01711822
-0.03075 0.05768018 0.0168646
-0.03025 0.05766871 0.01673777
-0.02975 0.05755401 0.01546958
-0.02925 0.05756547 0.01559639
-0.02875 0.05754253 0.01534276
-0.02825 0.05741636 0.01394775
-0.02775 0.05742783 0.01407457
-0.02725 0.05739342 0.01369411
-0.02675 0.05727871 0.01242591
-0.02625 0.05726724 0.01229911
-0.02575 0.05722136 0.01179183
-0.02525 0.05696901 0.009001799
-0.02475 0.05700342 0.009382255
-0.02425 0.05700342 0.009382255
0.01825 0.05809312 0.02143009
0.01875 0.058139 0.02193737
0.01925 0.05817341 0.02231783
0.01975 0.05820782 0.02269828
0.02025 0.05824224 0.02307873
0.02075 0.05826518 0.02333238
0.02125 0.05827665 0.02345919
0.02175 0.05828812 0.02358601
0.02225 0.058334 0.02409329
0.02275 0.05836841 0.02447374
0.02325 0.05839135 0.0247274
0.02375 0.05840282 0.0248542
0.02425 0.05840282 0.0248542
0.02475 0.05842576 0.02510785
0.02525 0.05842576 0.02510785
0.02575 0.05843723 0.02523465
0.02625 0.0584487 0.02536148
0.02675 0.05843723 0.02523465
0.02725 0.05842576 0.02510785
0.02775 0.05843723 0.02523465
0.02825 0.05842576 0.02510785
0.02875 0.05840282 0.0248542
0.02925 0.05841429 0.02498102
0.02975 0.05841429 0.02498102
0.03025 0.05839135 0.0247274
0.03075 0.05839135 0.0247274
0.03125 0.05832253 0.02396646
0.03175 0.05828812 0.02358601
0.03225 0.05823076 0.02295191
0.03275 0.05820782 0.02269828
0.03325 0.05819635 0.02257145
0.03375 0.05812753 0.02181055
0.03425 0.05809312 0.02143009
0.03475 0.05797841 0.0201619
0.03525 0.05798988 0.02028871
0.03575 0.057944 0.01978143
0.03625 0.057749 0.0176255
0.03675 0.057749 0.0176255
0.03725 0.05771459 0.01724505
0.03775 0.05761136 0.01610366
-0.045 0.05800179 0.01255071
-0.0445 0.05807036 0.01331169
-0.044 0.05813894 0.01407269
-0.0435 0.05817322 0.01445318
-0.043 0.05820751 0.01483367
-0.0425 0.0582418 0.01521417
-0.042 0.05826465 0.01546784
-0.0415 0.05829894 0.01584832
-0.041 0.05833323 0.01622882
-0.0405 0.05835609 0.01648249
-0.04 0.05836751 0.01660931
-0.0395 0.05837894 0.01673615
-0.039 0.05839037 0.01686299
-0.0385 0.05841323 0.01711664
-0.038 0.05842466 0.01724347
-0.0375 0.05843609 0.01737031
-0.037 0.05843609 0.01737031
-0.0365 0.05842466 0.01724347
-0.036 0.0584018 0.0169898
-0.0355 0.05841323 0.01711664
-0.035 0.05842466 0.01724347
-0.0345 0.05844752 0.01749713
-0.034 0.05845895 0.01762396
-0.0335 0.05845895 0.01762396
-0.033 0.05841323 0.01711664
-0.0325 0.0584018 0.0169898
-0.032 0.05841323 0.01711664
-0.0315 0.05842466 0.01724347
-0.031 0.05841323 0.01711664
-0.0305 0.05839037 0.01686299
-0.03 0.05828751 0.01572149
-0.0295 0.05826465 0.01546784
-0.029 0.05826465 0.01546784
-0.0285 0.05825322 0.01534101
-0.028 0.05815037 0.01419953
-0.0275 0.0581618 0.01432635
-0.027 0.05809322 0.01356537
-0.0265 0.05800179 0.01255071
-0.026 0.0579675 0.01217023
-0.0255 0.0578075 0.01039459
-0.025 0.05770463 0.009253092
-0.0245 0.0577275 0.009506762
0.0175 0.05865324 0.01978009
0.018 0.05871038 0.02041426
0.0185 0.05879039 0.02130207
0.019 0.0588361 0.0218094
0.0195 0.05887039 0.02218989
0.02 0.0589161 0.02269722
0.0205 0.05893896 0.02295087
0.021 0.05896182 0.02320455
0.0215 0.05898467 0.02345821
0.022 0.05900753 0.02371188
0.0225 0.05904182 0.02409237
0.023 0.05906468 0.02434602
0.0235 0.05908754 0.02459969
0.024 0.05908754 0.02459969
0.0245 0.05912182 0.02498018
0.025 0.05912182 0.02498018
0.0255 0.05913325 0.02510702
0.026 0.05913325 0.02510702
0.0265 0.05914468 0.02523383
0.027 0.05912182 0.02498018
0.0275 0.05912182 0.02498018
0.028 0.05913325 0.02510702
0.0285 0.05912182 0.02498018
0.029 0.05912182 0.02498018
0.0295 0.0591104 0.02485335
0.03 0.05908754 0.02459969
0.0305 0.05906468 0.02434602
0.031 0.05901896 0.02383869
0.0315 0.0589961 0.02358504
0.032 0.05895039 0.02307771
0.0325 0.05892753 0.02282406
0.033 0.05892753 0.02282406
0.0335 0.05890467 0.02257039
0.034 0.05882467 0.02168257
0.0345 0.05869895 0.02028742
0.035 0.05869895 0.02028742
0.0355 0.0586761 0.02003377
0.036 0.05857323 0.01889227
0.0365 0.05847038 0.0177508
0.037 0.05845895 0.01762396
0.0375 0.05835609 0.01648249
0.038 0.0581618 0.01432635
-0.04475 0.05874755 0.01292922
-0.04425 0.05881588 0.01369029
-0.04375 0.05886143 0.01419766
-0.04325 0.05890698 0.01470502
-0.04275 0.05894114 0.01508557
-0.04225 0.05896391 0.01533925
-0.04175 0.05900946 0.01584662
-0.04125 0.05904362 0.01622715
-0.04075 0.0590664 0.01648085
-0.04025 0.05908917 0.01673453
-0.03975 0.05908917 0.01673453
-0.03925 0.05910056 0.01686137
-0.03875 0.05911195 0.0169882
-0.03825 0.05912334 0.01711505
-0.03775 0.05913473 0.0172419
-0.03725 0.05914611 0.01736875
-0.03675 0.05914611 0.01736875
-0.03625 0.05913473 0.0172419
-0.03575 0.05913473 0.0172419
-0.03525 0.05914611 0.01736875
-0.03475 0.05913473 0.0172419
-0.03425 0.0591575 0.01749557
-0.03375 0.0591575 0.01749557
-0.03325 0.05912334 0.01711505
-0.03275 0.05912334 0.01711505
-0.03225 0.05911195 0.0169882
-0.03175 0.05912334 0.01711505
-0.03125 0.05912334 0.01711505
-0.03075 0.05908917 0.01673453
-0.03025 0.05903224 0.01610029
-0.02975 0.0589753 0.01546609
-0.02925 0.0589753 0.01546609
-0.02875 0.0589753 0.01546609
-0.02825 0.05887282 0.01432449
-0.02775 0.05887282 0.01432449
-0.02725 0.05885004 0.01407082
-0.02675 0.05881588 0.01369029
-0.02625 0.05874755 0.01292922
-0.02575 0.05855397 0.01077288
-0.02525 0.05855397 0.01077288
-0.02475 0.05840594 0.009123929
-0.02425 0.05840594 0.009123929
0.01775 0.05940802 0.02028614
0.01825 0.05947635 0.0210472
0.01875 0.05951051 0.02142774
0.01925 0.05954467 0.02180826
0.01975 0.05957883 0.02218878
0.02025 0.05963577 0.02282301
0.02075 0.05966993 0.02320354
0.02125 0.0596927 0.02345721
0.02175 0.05971548 0.02371091
0.02225 0.05972686 0.02383775
0.02275 0.05976103 0.02421828
0.02325 0.05977241 0.02434512
0.02375 0.0597838 0.02447197
0.02425 0.05979519 0.02459881
0.02475 0.05981796 0.0248525
0.02525 0.05982935 0.02497935
0.02575 0.05981796 0.0248525
0.02625 0.05982935 0.02497935
0.02675 0.05982935 0.02497935
0.02725 0.05982935 0.02497935
0.02775 0.05982935 0.02497935
0.02825 0.05984074 0.02510619
0.02875 0.05982935 0.02497935
0.02925 0.05980658 0.02472566
0.02975 0.05979519 0.02459881
0.03025 0.05973825 0.02396459
0.03075 0.05971548 0.02371091
0.03125 0.05970409 0.02358406
0.03175 0.0596927 0.02345721
0.03225 0.05964715 0.02294984
0.03275 0.05962438 0.02269616
0.03325 0.05962438 0.02269616
0.03375 0.05953328 0.02168141
0.03425 0.05944218 0.02066666
0.03475 0.05940802 0.02028614
0.03525 0.05936247 0.01977876
0.03575 0.05931692 0.01927138
0.03625 0.05927137 0.01876403
0.03675 0.05920305 0.01800295
0.03725 0.05914611 0.01736875
0.03775 0.05898669 0.01559293
0.03825 0.05890698 0.01470502
-0.0445 0.05950442 0.01343466
-0.044 0.05957249 0.0141958
-0.0435 0.05960653 0.01457637
-0.043 0.05964056 0.01495693
-0.0425 0.0596746 0.01533749
-0.042 0.05969729 0.01559119
-0.0415 0.05973133 0.01597176
-0.041 0.05975402 0.01622548
-0.0405 0.05976537 0.01635234
-0.04 0.05978806 0.01660604
-0.0395 0.05979941 0.0167329
-0.039 0.05981075 0.01685976
-0.0385 0.0598221 0.0169866
-0.038 0.05983344 0.01711346
-0.0375 0.05984479 0.01724032
-0.037 0.05985614 0.01736718
-0.0365 0.05986748 0.01749402
-0.036 0.05986748 0.01749402
-0.0355 0.05985614 0.01736718
-0.035 0.05984479 0.01724032
-0.0345 0.05985614 0.01736718
-0.034 0.05985614 0.01736718
-0.0335 0.05984479 0.01724032
-0.033 0.05983344 0.01711346
-0.0325 0.0598221 0.0169866
-0.032 0.05981075 0.01685976
-0.0315 0.05979941 0.0167329
-0.031 0.05979941 0.0167329
-0.0305 0.05977672 0.0164792
-0.03 0.05971999 0.01584491
-0.0295 0.05969729 0.01559119
-0.029 0.05966325 0.01521063
-0.0285 0.05959518 0.0144495
-0.028 0.05958384 0.01432264
-0.0275 0.05958384 0.01432264
-0.027 0.05953845 0.01381522
-0.0265 0.05951576 0.01356152
-0.026 0.05936827 0.01191241
-0.0255 0.05932288 0.01140498
-0.025 0.05928884 0.01102439
-0.0245 0.05914135 0.009375282
0.0175 0.06008305 0.01990429
0.018 0.06015113 0.02066541
0.0185 0.06019651 0.02117284
0.019 0.0602192 0.02142656
0.0195 0.06026458 0.02193397
0.02 0.06030997 0.0224414
0.0205 0.0603667 0.02307567
0.021 0.06038939 0.02332938
0.0215 0.06041208 0.02358309
0.022 0.06041208 0.02358309
0.0225 0.06043477 0.02383679
0.023 0.06045746 0.02409051
0.0235 0.06046881 0.02421737
0.024 0.0604915 0.02447107
0.0245 0.0604915 0.02447107
0.025 0.06051419 0.0247248
0.0255 0.06051419 0.0247248
0.026 0.06051419 0.0247248
0.0265 0.06051419 0.0247248
0.027 0.06052554 0.02485164
0.0275 0.06052554 0.02485164
0.028 0.06053688 0.0249785
0.0285 0.06052554 0.02485164
0.029 0.06051419 0.0247248
0.0295 0.06050285 0.02459794
0.03 0.06045746 0.02409051
0.0305 0.06041208 0.02358309
0.031 0.06041208 0.02358309
0.0315 0.06041208 0.02358309
0.032 0.06038939 0.02332938
0.0325 0.0603667 0.02307567
0.033 0.06033266 0.0226951
0.0335 0.0602192 0.02142656
0.034 0.0602192 0.02142656
0.0345 0.06020785 0.02129969
0.035 0.06013978 0.02053857
0.0355 0.06002632 0.01927
0.036 0.06003767 0.01939686
0.0365 0.05999228 0.01888943
0.037 0.05992421 0.01812831
0.0375 0.05971999 0.01584491
0.038 0.05971999 0.01584491
0.0385 0.05962922 0.01483007
-0.04425 0.06027225 0.01406706
-0.04375 0.06032877 0.01470138
-0.04325 0.06035138 0.01495513
-0.04275 0.06037399 0.01520886
-0.04225 0.0604079 0.01558946
-0.04175 0.06041921 0.01571633
-0.04125 0.06044181 0.01597007
-0.04075 0.06045312 0.01609693
-0.04025 0.06047573 0.01635068
-0.03975 0.06049833 0.0166044
-0.03925 0.06050964 0.01673128
-0.03875 0.06052094 0.01685815
-0.03825 0.06054355 0.01711188
-0.03775 0.06054355 0.01711188
-0.03725 0.06055486 0.01723874
-0.03675 0.06056616 0.01736562
-0.03625 0.06057746 0.01749247
-0.03575 0.06057746 0.01749247
-0.03525 0.06056616 0.01736562
-0.03475 0.06056616 0.01736562
-0.03425 0.06056616 0.01736562
-0.03375 0.06056616 0.01736562
-0.03325 0.06055486 0.01723874
-0.03275 0.06054355 0.01711188
-0.03225 0.06050964 0.01673128
-0.03175 0.06049833 0.0166044
-0.03125 0.06049833 0.0166044
-0.03075 0.06049833 0.0166044
-0.03025 0.06047573 0.01635068
-0.02975 0.06044181 0.01597007
-0.02925 0.06038529 0.01533573
-0.02875 0.06034008 0.01482826
-0.02825 0.06031747 0.01457454
-0.02775 0.06028356 0.01419393
-0.02725 0.06026095 0.01394019
-0.02675 0.06023834 0.01368646
-0.02625 0.06010269 0.01216405
-0.02575 0.06009138 0.01203717
-0.02525 0.06005747 0.01165657
-0.02475 0.05997834 0.0107685
-0.02425 0.0598653 0.009499833
0.01675 0.06065659 0.01838055
0.01725 0.06073572 0.01926861
0.01775 0.06080355 0.02002984
0.01825 0.06086007 0.02066416
0.01875 0.06089398 0.02104478
0.01925 0.0609392 0.02155223
0.01975 0.06098442 0.0220597
0.02025 0.06104094 0.02269404
0.02075 0.06107485 0.02307465
0.02125 0.06108616 0.02320152
0.02175 0.06110876 0.02345525
0.02225 0.06110876 0.02345525
0.02275 0.06114268 0.02383585
0.02325 0.06115398 0.02396271
0.02375 0.06117659 0.02421646
0.02425 0.06116528 0.02408959
0.02475 0.06117659 0.02421646
0.02525 0.06118789 0.02434332
0.02575 0.0611992 0.02447019
0.02625 0.0611992 0.02447019
0.02675 0.0611992 0.02447019
0.02725 0.06122181 0.02472393
0.02775 0.06122181 0.02472393
0.02825 0.06122181 0.02472393
0.02875 0.0612105 0.02459706
0.02925 0.0611992 0.02447019
0.02975 0.06118789 0.02434332
0.03025 0.06113137 0.02370898
0.03075 0.06112007 0.02358212
0.03125 0.06110876 0.02345525
0.03175 0.06109746 0.02332839
0.03225 0.06107485 0.02307465
0.03275 0.06106355 0.02294777
0.03325 0.0609279 0.02142538
0.03375 0.0609279 0.02142538
0.03425 0.0609392 0.02155223
0.03475 0.06091659 0.02129851
0.03525 0.06075833 0.01952236
0.03575 0.06074703 0.01939549
0.03625 0.06073572 0.01926861
0.03675 0.06069051 0.01876117
0.03725 0.06063399 0.01812682
0.03775 0.06047573 0.01635068
0.03825 0.0604079 0.01558946
0.03875 0.06029486 0.01432079
-0.0455 0.06083694 0.01241574
-0.045 0.06089326 0.01305014
-0.0445 0.06096083 0.01381142
-0.044 0.06100588 0.01431894
-0.0435 0.06106219 0.01495335
-0.043 0.06108472 0.0152071
-0.0425 0.06110725 0.01546086
-0.042 0.06112977 0.01571461
-0.0415 0.0611523 0.01596837
-0.041 0.06116356 0.01609524
-0.0405 0.06118609 0.01634902
-0.04 0.06120861 0.01660276
-0.0395 0.06123114 0.01685654
-0.039 0.0612424 0.0169834
-0.0385 0.06125366 0.01711029
-0.038 0.06126492 0.01723717
-0.0375 0.06125366 0.01711029
-0.037 0.06126492 0.01723717
-0.0365 0.06127619 0.01736405
-0.036 0.06127619 0.01736405
-0.0355 0.06126492 0.01723717
-0.035 0.06127619 0.01736405
-0.0345 0.06128745 0.01749092
-0.034 0.06128745 0.01749092
-0.0335 0.06127619 0.01736405
-0.033 0.06127619 0.01736405
-0.0325 0.06126492 0.01723717
-0.032 0.0612424 0.0169834
-0.0315 0.06120861 0.01660276
-0.031 0.06120861 0.01660276
-0.0305 0.06119735 0.0164759
-0.03 0.06118609 0.01634902
-0.0295 0.0611523 0.01596837
-0.029 0.06107346 0.01508023
-0.0285 0.06106219 0.01495335
-0.028 0.06103967 0.01469957
-0.0275 0.06099462 0.01419207
-0.027 0.06096083 0.01381142
-0.0265 0.06088199 0.01292326
-0.026 0.06081442 0.01216199
-0.0255 0.06082568 0.01228888
-0.025 0.06072431 0.01114695
-0.0245 0.06060043 0.009751268
0.017 0.06140007 0.01875973
0.0175 0.06147891 0.01964789
0.018 0.06152397 0.02015541
0.0185 0.06155775 0.02053604
0.019 0.06161407 0.02117043
0.0195 0.06165912 0.02167795
0.02 0.06170417 0.02218547
0.0205 0.06174922 0.02269299
0.021 0.06177174 0.02294674
0.0215 0.061783 0.02307363
0.022 0.06179427 0.02320051
0.0225 0.06181679 0.02345426
0.023 0.06182805 0.02358114
0.0235 0.06185058 0.02383489
0.024 0.06186184 0.02396178
0.0245 0.06187311 0.02408867
0.025 0.06187311 0.02408867
0.0255 0.06189563 0.02434242
0.026 0.06189563 0.02434242
0.0265 0.06189563 0.02434242
0.027 0.06189563 0.02434242
0.0275 0.0619069 0.0244693
0.028 0.0619069 0.0244693
0.0285 0.0619069 0.0244693
0.029 0.06188437 0.02421555
0.0295 0.06187311 0.02408867
0.03 0.06182805 0.02358114
0.0305 0.06182805 0.02358114
0.031 0.06180553 0.0233274
0.0315 0.06179427 0.02320051
0.032 0.061783 0.02307363
0.0325 0.06176048 0.02281988
0.033 0.06172669 0.02243923
0.0335 0.06162533 0.02129731
0.034 0.06163659 0.0214242
0.0345 0.06162533 0.02129731
0.035 0.06154649 0.02040916
0.0355 0.06149017 0.01977475
0.036 0.06145639 0.01939412
0.0365 0.06141134 0.0188866
0.037 0.06135502 0.01825222
0.0375 0.06119735 0.0164759
0.038 0.06121987 0.01672965
0.0385 0.06101714 0.01444582
0.039 0.06100588 0.01431894
-0.04575 0.06154858 0.01241371
-0.04525 0.06161591 0.01317507
-0.04475 0.0616608 0.01368263
-0.04425 0.06170568 0.0141902
-0.04375 0.06173934 0.01457088
-0.04325 0.06178423 0.01507845
-0.04275 0.06180667 0.01533222
-0.04225 0.06184033 0.01571289
-0.04175 0.06186278 0.01596668
-0.04125 0.06188522 0.01622046
-0.04075 0.06189644 0.01634736
-0.04025 0.0619301 0.01672803
-0.03975 0.06194133 0.01685493
-0.03925 0.06196377 0.0171087
-0.03875 0.06196377 0.0171087
-0.03825 0.06197499 0.01723559
-0.03775 0.06196377 0.0171087
-0.03725 0.06196377 0.0171087
-0.03675 0.06196377 0.0171087
-0.03625 0.06197499 0.01723559
-0.03575 0.06197499 0.01723559
-0.03525 0.06198621 0.01736249
-0.03475 0.06199743 0.01748937
-0.03425 0.06198621 0.01736249
-0.03375 0.06199743 0.01748937
-0.03325 0.06198621 0.01736249
-0.03275 0.06198621 0.01736249
-0.03225 0.06196377 0.0171087
-0.03175 0.06195255 0.0169818
-0.03125 0.06190766 0.01647425
-0.03075 0.06189644 0.01634736
-0.03025 0.06188522 0.01622046
-0.02975 0.06185155 0.01583979
-0.02925 0.06182911 0.015586
-0.02875 0.06176179 0.01482465
-0.02825 0.06175056 0.01469775
-0.02775 0.06173934 0.01457088
-0.02725 0.06167202 0.01380952
-0.02675 0.06161591 0.01317507
-0.02625 0.06157103 0.0126675
-0.02575 0.06154858 0.01241371
-0.02525 0.0614476 0.01127169
-0.02475 0.06140271 0.01076412
-0.02425 0.06130172 0.009622104
-0.02375 0.06104364 0.006703593
0.01725 0.0621433 0.01913898
0.01775 0.06219941 0.01977342
0.01825 0.06223307 0.02015411
0.01875 0.06228918 0.02078855
0.01925 0.06233406 0.02129612
0.01975 0.06236773 0.02167679
0.02025 0.06240139 0.02205747
0.02075 0.06244627 0.02256504
0.02125 0.06245749 0.02269193
0.02175 0.06247994 0.0229457
0.02225 0.06250238 0.0231995
0.02275 0.0625136 0.0233264
0.02325 0.06253604 0.02358017
0.02375 0.06255848 0.02383395
0.02425 0.06255848 0.02383395
0.02475 0.06256971 0.02396084
0.02525 0.06259215 0.02421463
0.02575 0.06260337 0.02434152
0.02625 0.06259215 0.02421463
0.02675 0.06259215 0.02421463
0.02725 0.06259215 0.02421463
0.02775 0.06258093 0.02408774
0.02825 0.06258093 0.02408774
0.02875 0.06256971 0.02396084
0.02925 0.06254727 0.02370706
0.02975 0.06253604 0.02358017
0.03025 0.06253604 0.02358017
0.03075 0.06253604 0.02358017
0.03125 0.06250238 0.0231995
0.03175 0.06245749 0.02269193
0.03225 0.06244627 0.02256504
0.03275 0.06243505 0.02243815
0.03325 0.0623565 0.0215499
0.03375 0.06233406 0.02129612
0.03425 0.06228918 0.02078855
0.03475 0.06228918 0.02078855
0.03525 0.06225552 0.02040789
0.03575 0.06222185 0.02002721
0.03625 0.06217697 0.01951964
0.03675 0.06207598 0.01837761
0.03725 0.06195255 0.0169818
0.03775 0.0619301 0.01672803
0.03825 0.06188522 0.01622046
0.03875 0.06176179 0.01482465
0.03925 0.06157103 0.0126675
0.03975 0.06158225 0.01279439
-0.046 0.06223788 0.01215787
-0.0455 0.06230495 0.01291928
-0.045 0.06236085 0.01355381
-0.0445 0.06240557 0.01406143
-0.044 0.06243911 0.01444214
-0.0435 0.06248383 0.01494975
-0.043 0.06250618 0.01520356
-0.0425 0.06252854 0.01545737
-0.042 0.06256209 0.01583808
-0.0415 0.06258444 0.01609188
-0.041 0.06258444 0.01609188
-0.0405 0.06261798 0.01647261
-0.04 0.06262916 0.01659949
-0.0395 0.0626627 0.0169802
-0.039 0.06267388 0.01710711
-0.0385 0.06268506 0.01723402
-0.038 0.06269624 0.01736093
-0.0375 0.06268506 0.01723402
-0.037 0.06268506 0.01723402
-0.0365 0.06269624 0.01736093
-0.036 0.06269624 0.01736093
-0.0355 0.06269624 0.01736093
-0.035 0.06269624 0.01736093
-0.0345 0.06268506 0.01723402
-0.034 0.06268506 0.01723402
-0.0335 0.06267388 0.01710711
-0.033 0.06268506 0.01723402
-0.0325 0.06267388 0.01710711
-0.032 0.06265152 0.01685332
-0.0315 0.06264034 0.0167264
-0.031 0.0626068 0.01634569
-0.0305 0.06259562 0.01621879
-0.03 0.06257326 0.01596498
-0.0295 0.06256209 0.01583808
-0.029 0.06250618 0.01520356
-0.0285 0.06247265 0.01482285
-0.028 0.06245029 0.01456905
-0.0275 0.06243911 0.01444214
-0.027 0.06234967 0.01342691
-0.0265 0.06233849 0.01329999
-0.026 0.06231613 0.0130462
-0.0255 0.0621708 0.01139646
-0.025 0.06214844 0.01114264
-0.0245 0.06203665 0.009873606
-0.024 0.06181306 0.007335544
-0.0235 0.06182424 0.007462434
0.017 0.06277449 0.01824926
0.018 0.06290865 0.01977208
0.0185 0.06296454 0.02040661
0.019 0.06300926 0.02091423
0.0195 0.0630428 0.02129493
0.02 0.06307634 0.02167564
0.0205 0.0630987 0.02192946
0.021 0.06313224 0.02231017
0.0215 0.06317696 0.02281778
0.022 0.06319932 0.02307158
0.0225 0.06322168 0.0233254
0.023 0.06323285 0.02345229
0.0235 0.06324404 0.0235792
0.024 0.06324404 0.0235792
0.0245 0.06325521 0.0237061
0.025 0.0632664 0.02383299
0.0255 0.06328876 0.02408681
0.026 0.06327757 0.0239599
0.0265 0.06327757 0.0239599
0.027 0.06327757 0.0239599
0.0275 0.06327757 0.0239599
0.028 0.0632664 0.02383299
0.0285 0.0632664 0.02383299
0.029 0.06325521 0.0237061
0.0295 0.06323285 0.02345229
0.03 0.06323285 0.02345229
0.0305 0.06324404 0.0235792
0.031 0.06323285 0.02345229
0.0315 0.0631546 0.02256396
0.032 0.06314342 0.02243707
0.0325 0.0631546 0.02256396
0.033 0.06312106 0.02218325
0.0335 0.0630987 0.02192946
0.034 0.06300926 0.02091423
0.0345 0.06299809 0.02078731
0.035 0.0629869 0.02066041
0.0355 0.06297573 0.02053352
0.036 0.06291983 0.019899
0.0365 0.06287511 0.01939138
0.037 0.06279685 0.01850305
0.0375 0.06268506 0.01723402
0.038 0.06264034 0.0167264
0.0385 0.06253973 0.01558426
0.039 0.06229378 0.01279239
0.0395 0.06232731 0.0131731
0.04 0.06232731 0.0131731
-0.04625 0.06290506 0.01164815
-0.04575 0.06296074 0.01228274
-0.04475 0.0630944 0.01380571
-0.04425 0.06315009 0.01444029
-0.04375 0.0631835 0.01482104
-0.04325 0.06321692 0.01520178
-0.04275 0.06323919 0.01545563
-0.04225 0.06326147 0.01570945
-0.04175 0.06328375 0.01596329
-0.04125 0.06330602 0.01621711
-0.04075 0.06330602 0.01621711
-0.04025 0.0633283 0.01647095
-0.03975 0.06333943 0.01659786
-0.03925 0.06336171 0.0168517
-0.03875 0.06338399 0.01710552
-0.03825 0.06339513 0.01723244
-0.03775 0.06339513 0.01723244
-0.03725 0.06340627 0.01735936
-0.03675 0.0634174 0.01748627
-0.03625 0.06340627 0.01735936
-0.03575 0.06339513 0.01723244
-0.03525 0.06339513 0.01723244
-0.03475 0.06338399 0.01710552
-0.03425 0.06337285 0.01697861
-0.03375 0.06337285 0.01697861
-0.03325 0.06338399 0.01710552
-0.03275 0.06337285 0.01697861
-0.03225 0.06336171 0.0168517
-0.03175 0.06333943 0.01659786
-0.03125 0.06331716 0.01634403
-0.03075 0.06330602 0.01621711
-0.03025 0.06330602 0.01621711
-0.02975 0.06329488 0.01609019
-0.02925 0.06327261 0.01583637
-0.02875 0.06322806 0.01532871
-0.02825 0.0631835 0.01482104
-0.02775 0.06313895 0.01431338
-0.02725 0.06307212 0.01355189
-0.02675 0.06304985 0.01329804
-0.02625 0.06304985 0.01329804
-0.02575 0.06299416 0.01266348
-0.02525 0.06283823 0.01088666
-0.02475 0.06284937 0.01101357
-0.02425 0.06255978 0.007713772
-0.02375 0.06258205 0.007967591
-0.02325 0.06251523 0.007206112
0.01775 0.06353991 0.01888233
0.01825 0.06364016 0.02002459
0.01875 0.06368471 0.02053225
0.01925 0.06371813 0.020913
0.01975 0.06375154 0.02129374
0.02025 0.0637961 0.0218014
0.02075 0.0638295 0.02218215
0.02125 0.06384064 0.02230907
0.02175 0.0638852 0.02281674
0.02225 0.06390747 0.02307056
0.02275 0.06392975 0.0233244
0.02325 0.06394088 0.02345131
0.02375 0.06394088 0.02345131
0.02425 0.06395202 0.02357822
0.02475 0.06395202 0.02357822
0.02525 0.06395202 0.02357822
0.02575 0.06396316 0.02370514
0.02625 0.06396316 0.02370514
0.02675 0.06396316 0.02370514
0.02725 0.0639743 0.02383205
0.02775 0.0639743 0.02383205
0.02825 0.0639743 0.02383205
0.02875 0.06398544 0.02395897
0.02925 0.06396316 0.02370514
0.02975 0.06394088 0.02345131
0.03025 0.06394088 0.02345131
0.03075 0.06394088 0.02345131
0.03125 0.06391861 0.02319748
0.03175 0.06385178 0.02243599
0.03225 0.06386292 0.0225629
0.03275 0.06385178 0.02243599
0.03325 0.0638295 0.02218215
0.03375 0.06380723 0.02192833
0.03425 0.06370699 0.02078607
0.03475 0.06368471 0.02053225
0.03525 0.06368471 0.02053225
0.03575 0.06366244 0.02027841
0.03625 0.06364016 0.02002459
0.03675 0.06351765 0.01862852
0.03725 0.06350651 0.01850159
0.03775 0.0634174 0.01748627
0.03825 0.06337285 0.01697861
0.03875 0.06299416 0.01266348
0.03925 0.06302758 0.01304422
0.03975 0.06303871 0.01317114
-0.047 0.06351709 0.01050371
-0.0465 0.06360585 0.0115191
-0.046 0.06365024 0.01202682
-0.0455 0.06371682 0.0127884
-0.045 0.0637834 0.01354997
-0.0445 0.06383888 0.01418461
-0.044 0.06388327 0.0146923
-0.0435 0.06392765 0.01520002
-0.043 0.06394985 0.01545388
-0.0425 0.06398313 0.01583466
-0.042 0.06400532 0.01608851
-0.0415 0.06402752 0.01634238
-0.041 0.06402752 0.01634238
-0.0405 0.06402752 0.01634238
-0.04 0.06404971 0.01659622
-0.0395 0.06406081 0.01672316
-0.039 0.06406081 0.01672316
-0.0385 0.064083 0.016977
-0.038 0.064083 0.016977
-0.0375 0.06410519 0.01723087
-0.037 0.06411629 0.0173578
-0.0365 0.06411629 0.0173578
-0.036 0.06410519 0.01723087
-0.0355 0.0640941 0.01710393
-0.035 0.06410519 0.01723087
-0.0345 0.064083 0.016977
-0.034 0.064083 0.016977
-0.0335 0.0640941 0.01710393
-0.033 0.0640941 0.01710393
-0.0325 0.064083 0.016977
-0.032 0.06403861 0.01646931
-0.0315 0.06403861 0.01646931
-0.031 0.06403861 0.01646931
-0.0305 0.06402752 0.01634238
-0.03 0.06400532 0.01608851
-0.0295 0.06400532 0.01608851
-0.029 0.06398313 0.01583466
-0.0285 0.06392765 0.01520002
-0.028 0.06389436 0.01481923
-0.0275 0.06380559 0.01380381
-0.027 0.0637834 0.01354997
-0.0265 0.0637612 0.0132961
-0.026 0.06371682 0.0127884
-0.0255 0.06360585 0.0115191
-0.025 0.06358366 0.01126526
-0.0245 0.06351709 0.01050371
-0.024 0.06330625 0.008092076
-0.0235 0.06326187 0.007584363
0.0175 0.06421616 0.01850014
0.018 0.06429383 0.01938864
0.0185 0.06434932 0.02002328
0.019 0.0643937 0.02053099
0.0195 0.06443808 0.0210387
0.02 0.06448247 0.02154639
0.0205 0.06451576 0.02192719
0.021 0.06453795 0.02218104
0.0215 0.06456015 0.02243491
0.022 0.06459343 0.02281569
0.0225 0.06461562 0.02306954
0.023 0.06462672 0.02319647
0.0235 0.06463782 0.0233234
0.024 0.06464891 0.02345031
0.0245 0.06464891 0.02345031
0.025 0.06463782 0.0233234
0.0255 0.06466001 0.02357725
0.026 0.06466001 0.02357725
0.0265 0.06466001 0.02357725
0.027 0.06467111 0.02370418
0.0275 0.06467111 0.02370418
0.028 0.0646822 0.0238311
0.0285 0.0646822 0.0238311
0.029 0.0646933 0.02395803
0.0295 0.06464891 0.02345031
0.03 0.06462672 0.02319647
0.0305 0.06462672 0.02319647
0.031 0.06462672 0.02319647
0.0315 0.06456015 0.02243491
0.032 0.06456015 0.02243491
0.0325 0.06456015 0.02243491
0.033 0.06456015 0.02243491
0.0335 0.06452686 0.02205411
0.034 0.06450466 0.02180026
0.0345 0.06440479 0.0206579
0.035 0.06438261 0.02040406
0.0355 0.0643715 0.02027713
0.036 0.06432712 0.01976941
0.0365 0.06424944 0.01888092
0.037 0.06423835 0.01875401
0.0375 0.06421616 0.01850014
0.038 0.0640941 0.01710393
0.0385 0.064083 0.016977
0.039 0.06388327 0.0146923
0.0395 0.06375011 0.01316918
-0.04625 0.06437307 0.0121517
-0.04575 0.06442834 0.0127864
-0.04525 0.06449467 0.01354804
-0.04475 0.06452784 0.01392885
-0.04425 0.06457206 0.01443661
-0.04375 0.06461628 0.01494438
-0.04325 0.06463838 0.01519825
-0.04275 0.06467155 0.01557907
-0.04225 0.06470472 0.0159599
-0.04175 0.06472682 0.01621377
-0.04125 0.06473788 0.01634072
-0.04075 0.06474894 0.01646766
-0.04025 0.06475998 0.01659458
-0.03975 0.06479315 0.0169754
-0.03925 0.06477104 0.01672153
-0.03875 0.0647821 0.01684847
-0.03825 0.0647821 0.01684847
-0.03775 0.0648042 0.01710235
-0.03725 0.06481526 0.01722929
-0.03675 0.06481526 0.01722929
-0.03625 0.06481526 0.01722929
-0.03575 0.0648042 0.01710235
-0.03525 0.06482632 0.01735624
-0.03475 0.06481526 0.01722929
-0.03425 0.0648042 0.01710235
-0.03375 0.0648042 0.01710235
-0.03325 0.0648042 0.01710235
-0.03275 0.0648042 0.01710235
-0.03225 0.06479315 0.0169754
-0.03175 0.06474894 0.01646766
-0.03125 0.06472682 0.01621377
-0.03075 0.06473788 0.01634072
-0.03025 0.06471577 0.01608682
-0.02975 0.06469366 0.01583295
-0.02925 0.0646826 0.01570601
-0.02875 0.06464944 0.0153252
-0.02825 0.06462733 0.01507133
-0.02775 0.06453889 0.0140558
-0.02725 0.06451678 0.01380191
-0.02675 0.06449467 0.01354804
-0.02625 0.06447256 0.01329415
-0.02575 0.06430674 0.01139007
-0.02525 0.06430674 0.01139007
-0.02475 0.06430674 0.01139007
-0.02425 0.06419619 0.01012065
-0.02375 0.06400826 0.007962681
0.01675 0.06482632 0.01735624
0.01725 0.06489264 0.01811787
0.01775 0.06495897 0.0188795
0.01825 0.06501425 0.0195142
0.01875 0.06506953 0.02014891
0.01925 0.06511374 0.02065665
0.01975 0.06516901 0.02129136
0.02025 0.06520218 0.02167218
0.02075 0.06522429 0.02192607
0.02125 0.06523535 0.02205299
0.02175 0.06526851 0.02243382
0.02225 0.06530167 0.02281465
0.02275 0.06531273 0.02294157
0.02325 0.06532378 0.02306852
0.02375 0.06533484 0.02319546
0.02425 0.06534589 0.0233224
0.02475 0.06533484 0.02319546
0.02525 0.06535695 0.02344933
0.02575 0.06534589 0.0233224
0.02625 0.06535695 0.02344933
0.02675 0.065368 0.02357627
0.02725 0.065368 0.02357627
0.02775 0.065368 0.02357627
0.02825 0.065368 0.02357627
0.02875 0.06537906 0.02370322
0.02925 0.06537906 0.02370322
0.02975 0.06531273 0.02294157
0.03025 0.06532378 0.02306852
0.03075 0.06531273 0.02294157
0.03125 0.06529061 0.0226877
0.03175 0.0652464 0.02217994
0.03225 0.0652464 0.02217994
0.03275 0.0652464 0.02217994
0.03325 0.06523535 0.02205299
0.03375 0.06521323 0.02179912
0.03425 0.06520218 0.02167218
0.03475 0.06509163 0.02040278
0.03525 0.06504741 0.01989502
0.03575 0.06501425 0.0195142
0.03625 0.06497003 0.01900645
0.03675 0.06495897 0.0188795
0.03725 0.06494792 0.01875257
0.03775 0.06485948 0.01773705
0.03825 0.06481526 0.01722929
0.03875 0.0647821 0.01684847
